ply
format ascii 1.0
element vertex 816
property double x
property double y
property double z
property double nx
property double ny
property double nz
end_header
0.392316 0.0887435 0.670181 0.844835 0.227594 0.484205
-0.165873 0.170866 -0.160236 -0.058863 0.972629 -0.224782
-0.189309 0.146379 0.746293 -0.0727735 0.991824 0.104827
-0.235661 0.0473795 -0.934102 -0.38687 0.602508 -0.69808
-0.136929 0.17967 -0.126799 -0.160789 0.980308 -0.114647
-0.411463 -0.0320884 -0.763251 -0.888946 -0.294977 -0.350376
-0.333469 0.0421169 -0.00418323 -0.998178 0.0589296 0.0129972
-0.235595 -0.124629 0.303721 0.622954 -0.724707 0.294497
-0.31629 -0.0367363 -0.88103 -0.553648 -0.499 -0.666688
-0.409306 0.0466181 -0.314374 -0.86122 0.34618 0.372103
-0.410615 -0.0275871 -0.309882 -0.926563 0.0347304 0.374532
0.107933 0.0596441 0.915353 0.311706 0.273648 0.909921
-0.275241 -0.143964 0.288902 -0.0533688 -0.998474 0.01421
0.27382 0.116507 -0.0774202 0.771954 0.60119 0.206539
0.335098 -0.0482327 0.0658849 0.960611 -0.0789609 -0.266441
0.222094 -0.106334 0.833919 0.445906 -0.699777 0.558104
0.398178 -0.0196305 0.711852 0.844835 0.227594 0.484205
0.352407 0.128955 -0.379189 0.134163 0.990391 0.0335592
-0.254793 -0.148335 0.20842 -0.362416 -0.924594 -0.117394
-0.120143 0.187 -0.00865147 -0.0911853 0.991572 0.0920303
0.376724 -0.022844 -0.236225 0.842563 -0.422447 0.334105
-0.0792812 0.191156 0.0275985 -0.0816029 0.986726 0.1404
0.0416274 0.00687205 0.684638 0.0494857 -0.0292021 -0.998348
-0.162083 -0.142438 0.76861 0.0443128 -0.997169 -0.0607444
0.21543 0.0632645 0.543282 -0.932302 0.276642 -0.232984
0.423191 -0.0859277 0.393761 0.905718 -0.349159 -0.24034
0.248312 -0.145311 -0.298789 -0.332892 -0.8766 -0.347498
-0.0741254 0.0971799 0.232761 0.116636 0.738879 0.663667
0.358366 0.134314 -0.680452 0.741329 0.616182 -0.26599
-0.195453 -0.0585094 -0.948685 -0.354591 -0.153532 -0.92233
-0.0384999 -0.0714887 0.704239 0.256241 -0.435828 -0.862783
0.371737 0.0491732 -0.239889 0.939344 0.105057 0.326491
-0.22514 0.0189638 -0.573523 0.883423 0.244117 0.399962
-0.286853 -0.106601 -0.0525832 -0.631127 -0.774289 -0.0464269
-0.0708497 0.0279207 -0.993845 -0.156752 -0.162959 -0.974101
-0.218974 0.140978 0.69024 0.0577664 0.996555 -0.0595028
0.17368 0.169275 0.0412994 0.262745 0.962257 0.0709017
0.169922 -0.140612 0.804523 0.0605723 -0.994385 0.0867698
0.0800129 0.0819407 0.240384 -0.417334 0.519673 0.745502
-0.445411 0.0815328 0.497171 -0.895104 0.433967 -0.102283
-0.40344 -0.0749616 -0.744994 -0.858505 -0.196843 -0.47352
-0.189326 0.0666898 0.334599 0.859787 0.187528 0.474974
-0.296154 -0.00175852 -0.90211 -0.632264 -0.264335 -0.728265
-0.385301 0.0497132 -0.260734 -0.907721 0.273911 0.31783
-0.228322 -0.0584754 0.525477 0.824674 -0.559427 -0.0833909
-0.130618 0.14 -0.259037 0.143907 0.816504 -0.559117
0.451363 0.0535667 0.467405 0.852627 0.515003 -0.0883157
-0.246542 -0.0931977 0.835348 -0.364128 -0.636186 0.680204
0.0605405 -0.143411 0.820586 -0.0470447 -0.973669 -0.223057
-0.00915475 0.114149 0.205771 -0.0527141 0.634796 0.770879
-0.2445 0.111135 -0.406955 0.723959 0.648567 -0.235043
0.202335 0.154419 0.172858 -0.117583 0.975202 0.187497
0.250304 0.150186 0.227844 0.228828 0.96863 -0.0969187
0.182771 0.0205574 0.902416 0.40469 -0.156582 0.900948
0.312832 -0.122655 0.184409 0.7285 -0.632396 -0.263369
-0.211567 -0.00717946 -0.609745 0.976041 0.0909998 0.197642
0.114723 -0.0273259 0.281577 -0.54954 0.12982 0.82532
-0.435174 -0.0955246 0.539141 -0.610684 -0.778964 0.142408
-0.25666 0.0771315 -0.906227 -0.464989 0.301831 -0.832276
0.230782 0.118661 0.609998 -0.653377 0.598897 -0.463056
0.264325 0.118001 0.788961 0.267867 0.918133 0.292025
0.101431 -0.0981321 0.697711 -0.340385 -0.774814 -0.532731
0.0808112 0.111753 0.719856 -0.120834 0.909584 -0.397562
0.366322 0.127186 0.31684 0.470626 0.869193 -0.151704
0.145697 0.0760205 0.894817 0.197046 0.435536 0.87834
0.236755 0.101803 -0.453702 -0.671278 0.642501 -0.369565
0.0950482 -0.147652 0.181878 -0.0617131 -0.943589 0.325316
0.11452 -0.106877 -0.295847 -0.320231 -0.818556 -0.476884
-0.363507 0.0198572 -0.171849 -0.949141 -0.173645 0.262637
0.0273157 0.185468 0.0777591 -0.0129033 0.969271 0.245658
0.336289 -0.120987 0.703936 0.269747 -0.945557 0.182092
-0.298852 0.123708 0.121024 -0.670717 0.728894 -0.137305
0.431772 0.0793234 -0.62464 0.877663 0.477956 -0.0355746
0.442513 -0.0216563 0.382676 0.930593 -0.329857 -0.158716
-0.213264 0.0384372 -0.616809 0.931304 -0.0469146 0.361208
0.369552 -0.133741 0.580934 0.657509 -0.722358 0.214197
-0.0152302 -0.0986167 -0.275806 -0.11201 -0.616878 -0.779048
0.148871 -0.128059 -0.770493 -0.510189 -0.597435 0.618691
0.27735 -0.13123 -0.604367 -0.214658 -0.975058 0.0564274
0.209869 0.142675 -0.831316 0.308788 0.8245 -0.474183
-0.128676 0.184442 0.0319308 -0.265584 0.964088 -0.000319632
0.267583 -0.139102 0.339961 -0.0176828 -0.99624 0.0848116
-0.411179 0.0880608 -0.711569 -0.576555 0.754947 -0.312474
-0.3474 -0.0712828 0.116053 -0.897889 -0.329309 -0.292149
0.199979 -0.142594 -0.286198 -0.00492809 -0.996521 -0.0831952
0.326482 0.113432 -0.253138 0.374241 0.922814 0.0914233
0.215386 0.156012 -0.0719362 0.558004 0.828221 0.0517813
0.104137 0.0210284 0.928971 0.197046 0.435536 0.87834
-0.313826 0.13639 -0.767142 -0.321393 0.925886 -0.198601
-0.364223 0.136359 -0.400367 -0.0152524 0.998892 -0.044522
0.28885 0.146715 -0.328979 0.208948 0.977057 0.0412284
0.232541 -0.145289 0.00618861 0.524453 -0.846383 -0.0926551
0.179855 0.14612 -0.796846 -0.123604 0.953478 0.274957
0.054264 -0.146311 0.174045 -0.0949046 -0.699468 0.708334
-0.0708866 -0.138075 -0.826321 -0.0449436 -0.998869 -0.0155459
0.241346 0.149612 0.188486 -0.117583 0.975202 0.187497
-0.340813 0.0341564 -0.0874289 -0.97913 -0.107688 0.172361
-0.286006 -0.139596 0.180587 -0.378681 -0.913011 -0.151695
-0.271004 -0.140897 0.734836 -0.405768 -0.804875 0.433045
0.220516 -0.0448677 0.513067 -0.989133 -0.0244846 -0.144974
-0.353598 -0.0835678 -0.224852 -0.641888 -0.731485 0.230023
0.42079 0.080582 0.355952 0.935396 0.214679 -0.280974
-0.288918 -0.148142 -0.294454 0.0805655 -0.986061 -0.145576
-0.190953 -0.165164 0.043668 -0.202528 -0.974976 0.0916697
0.299886 0.106135 -0.836459 0.341761 0.881739 -0.325171
0.454525 -0.0264392 0.465262 0.992758 0.0525824 -0.10801
-0.113388 0.133581 0.741106 0.140811 0.714553 -0.685264
-0.0558377 -0.0105522 0.935642 -0.0288621 -0.0111565 0.999521
-0.0621133 0.183412 0.0815738 -0.0129033 0.969271 0.245658
0.175596 -0.14679 -0.81412 0.243381 -0.898271 -0.365888
0.132424 -0.118301 0.235629 -0.257437 -0.874158 0.411794
0.129597 -0.176389 -0.138731 0.116661 -0.971597 -0.205887
0.00192893 -0.0249708 -0.999098 0.0863826 0.028281 -0.995861
-0.249702 -0.148251 0.155036 -0.0926732 -0.995271 0.029119
0.365826 -0.100293 -0.309213 0.599667 -0.758802 0.254204
-0.132013 -0.135001 0.840174 -0.275388 -0.734024 0.620782
0.2413 -0.0888518 0.447408 -0.890202 -0.454755 -0.027168
-0.138997 0.0877937 0.270672 0.668623 0.299709 0.680528
-0.0879982 -0.143234 -0.886798 -0.0449436 -0.998869 -0.0155459
-0.0525766 0.0744036 0.918296 -0.0132779 0.369681 0.929064
0.0722826 0.109455 -0.952021 0.0692844 0.906909 -0.41559
-0.152592 -0.15657 0.148402 0.158404 -0.940139 0.30174
-0.419482 0.0645251 0.318727 -0.734177 0.633759 -0.243585
-0.444646 0.0789777 -0.627862 -0.925765 0.371768 -0.0689011
0.358554 0.133895 -0.423831 0.494053 0.856544 0.149144
0.341235 -0.0919945 -0.803617 0.765423 -0.375217 -0.52282
0.362591 -0.0217156 -0.190294 0.948738 0.0904714 0.302838
0.182425 -0.159796 -0.207883 0.177597 -0.983808 -0.0240873
-0.227311 0.000871342 -0.532901 0.971611 -0.211903 0.105207
0.278209 0.137968 -0.651835 0.0491482 0.998696 -0.0138107
0.366654 0.0198495 0.149338 0.932241 0.244154 -0.267048
0.0660372 0.191696 -0.0966645 0.131909 0.98617 -0.100344
-0.397992 0.0467182 0.230641 -0.822441 0.489076 -0.29051
-0.216278 -0.149332 0.19568 -0.224346 -0.974072 -0.0291907
-0.443573 -0.0785179 -0.488203 -0.941544 -0.336144 0.0224035
0.385418 -0.0945107 -0.728584 0.793607 -0.392338 -0.465036
-0.118236 -0.176659 0.0711923 -0.119953 -0.98251 0.142424
-0.293938 -0.0742691 -0.87806 -0.553649 -0.267542 -0.788603
0.256928 0.137193 -0.69255 -0.602828 0.74736 0.279376
0.372905 -0.0533332 -0.793012 0.793607 -0.392338 -0.465036
0.338021 -0.144679 0.553745 0.396832 -0.917605 0.0229188
0.309378 -0.141265 0.477215 0.24276 -0.969976 -0.0146377
0.315539 -0.146531 -0.632617 0.287835 -0.952134 -0.102915
0.369374 0.0877588 -0.300207 0.651959 0.71985 0.238253
0.272007 -0.12115 0.458121 -0.719519 -0.673867 0.167916
0.208143 0.102355 0.318935 -0.418316 0.84509 0.332918
-0.0263343 -0.18287 0.0847757 -0.0627686 -0.987969 0.141344
0.252671 0.141757 0.643656 0.0685615 0.997111 0.0327004
0.362679 -0.136136 0.408525 0.0623193 -0.997771 -0.0238425
0.201573 0.0628275 -0.939171 0.323374 0.553725 -0.767345
0.216251 0.160364 -0.183265 0.237164 0.970633 -0.0403021
-0.190094 -0.122739 -0.326073 0.277223 -0.825776 -0.491164
0.0785504 -0.00869153 0.262732 -0.129437 -0.0848636 0.98795
0.283855 -0.143971 -0.373387 -0.296011 -0.947463 -0.121211
0.456168 -0.0315076 0.510372 0.919225 -0.393013 -0.0238099
-0.361125 -0.115719 -0.326582 -0.424915 -0.895211 0.134331
-0.21778 -0.155342 -0.0480858 -0.492909 -0.869887 -0.0183758
0.049418 0.196389 -0.0563182 0.027546 0.999496 0.0157488
-0.330971 0.0494694 -0.0486034 -0.930968 0.360813 -0.0558002
0.143216 -0.113823 -0.924194 0.167223 -0.903795 -0.393943
-0.446116 0.0040266 -0.692042 -0.915612 0.0128275 -0.401859
-0.232663 -0.144837 0.732486 0.0443128 -0.997169 -0.0607444
-0.43927 -0.0840932 0.411261 -0.953549 -0.255166 -0.160105
-0.302449 -0.141909 -0.658445 -0.0868286 -0.994908 -0.0511803
-0.159817 0.104313 0.871483 -0.316239 0.450832 0.834712
-0.359011 -0.125799 -0.7235 -0.716119 -0.619069 -0.322377
-0.409949 -0.122682 0.518448 -0.822431 -0.562643 0.083905
0.222041 0.149384 0.0331729 0.575852 0.815509 -0.057788
0.401842 0.112735 0.377778 0.400074 0.91118 -0.0984469
-0.143665 0.130182 0.842963 -0.0640986 0.978122 0.197912
0.299844 0.0851309 -0.0807008 0.690926 0.715426 0.103864
-0.0586317 -0.185258 0.0590384 -0.0755113 -0.966881 0.243802
0.300579 0.137158 0.438114 -0.42029 0.907264 -0.0150801
-0.204986 -0.127424 -0.738892 0.167401 -0.974003 0.152626
-0.280176 -0.0409103 -0.906139 -0.632264 -0.264335 -0.728265
-0.0277852 0.141407 0.176939 0.116636 0.738879 0.663667
-0.168545 0.0927155 -0.341262 0.485365 0.729686 -0.481642
-0.107049 -0.105853 0.228063 0.262005 -0.811883 0.521727
-0.101049 0.116396 -0.276425 0.364836 0.697783 -0.616436
0.438366 -0.0241667 -0.689515 0.941674 0.147963 -0.302254
0.246017 -0.148456 0.274853 0.249918 -0.96727 -0.0439174
0.33735 -0.116448 -0.283944 0.307944 -0.940486 0.143727
0.0748435 0.140666 -0.824292 -0.235398 0.772571 0.589679
0.251862 0.147136 0.704642 0.325474 0.905852 0.271106
0.278102 -0.125138 0.502493 -0.765516 -0.642391 -0.0363336
0.349293 -0.128208 0.663732 0.418756 -0.894838 0.154623
0.0390588 0.104959 0.723654 -0.0964365 0.844963 -0.526058
-0.1171 0.175855 0.106809 -0.145837 0.984565 0.0967655
0.357518 0.0841549 -0.261364 0.619539 0.747152 0.240698
-0.184143 -0.124165 0.249046 0.262005 -0.811883 0.521727
-0.14583 0.114221 -0.929966 -0.17972 0.892289 -0.41415
0.0352431 -0.0158188 0.25136 0.0932973 -0.24344 0.965418
0.0163747 -0.0139367 0.937144 0.0341052 -0.372655 0.927343
0.381795 0.00209596 0.184845 0.930576 -0.186594 -0.314979
0.190286 -0.129053 0.680132 -0.306494 -0.92663 -0.217759
-0.0803941 -0.112515 0.885277 -0.181947 -0.474364 0.861321
0.220028 -0.068988 -0.605976 -0.657568 -0.700734 0.276722
-0.224235 0.0108703 0.484697 0.982095 -0.101393 0.158771
0.117519 -0.185877 -0.0496416 0.165681 -0.986123 0.0105883
-0.353062 0.125783 0.273445 -0.483396 0.857127 -0.17794
0.0893243 -0.165971 0.145907 -0.141107 -0.846652 0.513098
-0.328273 0.143607 -0.576056 0.491897 0.861912 0.123062
0.352882 -0.0911399 0.728335 0.782866 -0.403215 0.473855
-0.21734 -0.0684928 -0.434112 0.913391 -0.0275144 -0.406153
-0.16993 -0.0250175 0.321787 0.805262 -0.340334 0.485515
-0.430306 0.111498 -0.554577 -0.706153 0.705487 0.0603076
-0.456804 0.0546718 0.531023 -0.975455 0.169033 0.141119
-0.370111 0.0821776 -0.789022 -0.555051 0.703278 -0.444206
0.0998311 0.0716339 -0.321788 -0.441762 0.612037 -0.65594
0.0700703 0.172103 0.120115 -0.0208115 0.869679 0.493179
0.349543 0.0297775 0.0978298 0.955519 0.182763 -0.231475
-0.333923 -0.0888402 -0.18325 -0.833401 -0.482995 0.268622
-0.185461 0.0625478 -0.677048 0.600593 0.653886 0.460132
0.183299 -0.121353 0.838086 0.245157 -0.701632 0.669037
0.0504357 -0.14163 0.783493 -0.146425 -0.903099 -0.403698
0.314638 0.146463 -0.681398 0.0491482 0.998696 -0.0138107
-0.36006 0.144326 -0.501947 0.217685 0.975858 0.0177401
0.279965 -0.141839 0.607457 -0.312747 -0.943402 -0.110375
-0.165077 -0.143706 -0.826639 0.136765 -0.940835 0.310042
-0.448824 -0.000987431 -0.408163 -0.937206 -0.140678 0.319146
0.23349 0.0846336 0.401389 -0.651755 0.750034 0.112536
0.295438 0.132236 0.480092 -0.673132 0.739491 0.00688679
0.228901 0.0229212 -0.939785 0.371863 0.225528 -0.900475
0.362727 -0.09514 -0.766381 0.709353 -0.593246 -0.380628
0.33978 0.0561053 -0.157121 0.771954 0.60119 0.206539
-0.0420708 0.108057 0.894039 -0.105337 0.791885 0.601516
0.253556 -0.135458 -0.682936 -0.383517 -0.910386 0.155278
0.428504 0.0862525 0.399377 0.946418 0.292868 -0.136094
0.230916 -0.150339 -0.257662 -0.0907743 -0.953956 -0.285881
-0.379688 0.0935517 0.70252 -0.546743 0.740922 0.390009
0.0273807 0.115153 -0.264403 -0.102008 0.517491 -0.849586
0.155159 -0.0763959 0.890588 0.365369 -0.571968 0.73441
0.223055 0.148835 0.730195 -0.244441 0.923998 -0.29407
-0.317519 0.122744 0.171609 -0.669887 0.699308 -0.24944
-0.124833 -0.000431935 -0.345888 0.381962 0.118135 -0.916597
-0.0894316 0.142708 -0.241161 0.109822 0.738424 -0.665334
0.043932 0.0657643 0.239979 -0.206122 0.145569 0.967638
-0.142098 0.116936 0.702151 0.261004 0.689493 -0.67563
0.412811 0.0715785 0.3145 0.720133 0.653703 -0.232555
-0.462444 -0.037319 -0.600333 -0.980423 -0.0243222 -0.195396
0.217664 -0.151712 -0.03731 0.594557 -0.803687 0.0242689
0.0105197 -0.0848983 0.223486 -0.20998 -0.614304 0.760618
-0.267426 -0.115017 -0.605291 0.239379 -0.968589 0.0673237
0.0913297 -0.121224 0.215161 -0.20998 -0.614304 0.760618
0.457536 0.00522887 0.536962 0.945473 -0.23824 0.222087
-0.0786771 0.143134 -0.890992 -0.110941 0.82806 -0.549554
0.317948 -0.131502 0.226234 0.249918 -0.96727 -0.0439174
0.101059 0.189637 -0.0722353 0.0784471 0.990131 -0.116129
0.101734 -0.0219642 -0.723695 -0.631887 -0.126778 0.764621
-0.446827 0.0661197 0.574785 -0.789923 0.584664 0.184904
0.352477 0.0519303 0.133715 0.735025 0.618653 -0.277499
-0.368534 0.144011 -0.561631 -0.501184 0.861124 -0.0853255
-0.144536 -0.0651355 -0.96482 -0.22515 -0.724228 -0.651768
-0.0462088 0.0828234 0.706266 0.0246751 0.623385 -0.781525
-0.391875 0.0863662 -0.751334 -0.75825 0.547837 -0.353457
-0.0586191 0.121745 -0.259898 0.0454657 0.869461 -0.491904
0.126788 0.141646 -0.883954 0.100827 0.982376 -0.157388
-0.350243 0.0721175 -0.8242 -0.53689 0.663633 -0.520903
-0.281427 0.150251 0.247938 -0.333042 0.938694 -0.0890935
0.246998 -0.131151 -0.0631056 0.411146 -0.911361 -0.0194978
-0.0862628 -0.125642 -0.265164 0.301496 -0.704754 -0.642201
0.18134 0.119657 0.672079 -0.448821 0.634682 -0.629077
-0.0104483 0.0870246 0.91191 0.0600783 0.611431 0.789014
0.0942635 -0.0606838 0.679093 -0.303419 -0.209083 -0.929635
-0.141105 -0.143172 0.184869 -0.00322385 -0.967096 0.254392
-0.0210979 0.00875899 0.940479 0.0552796 0.148574 0.987355
-0.111322 -0.0876573 -0.753701 0.497489 -0.449274 0.742063
-0.431831 0.0233 0.308254 -0.960162 0.078096 -0.268309
-0.172748 0.146751 0.209048 -0.0113768 0.97748 0.210721
-0.157817 -0.0176523 -0.369072 0.523074 0.240404 -0.81768
0.268946 0.144935 -0.377641 -0.249545 0.963057 -0.101232
0.210263 -0.0228537 0.413035 -0.959757 -0.274929 0.0572775
-0.0339753 0.142927 0.788154 -0.021566 0.974355 -0.223982
0.150715 -0.0198131 0.312032 -0.839334 -0.0319306 0.542677
-0.219654 0.0248548 0.529295 0.927164 -0.0867907 -0.364464
0.282609 -0.119069 0.76955 0.251546 -0.936242 0.245306
-0.431725 0.0831128 -0.667962 -0.942863 0.226 -0.244812
-0.199526 -0.0499235 0.350824 0.908378 -0.230098 0.349149
0.342683 0.140173 0.626513 -0.0519808 0.998398 -0.0223295
0.318906 0.144426 -0.410859 0.472099 0.867772 0.155222
0.0415565 -0.0489028 -0.308579 -0.284046 -0.548376 -0.786513
0.0195815 -0.139575 -0.831612 0.00345699 -0.966081 0.258216
0.419895 0.104686 -0.543975 0.922482 0.381725 0.0575673
-0.102379 0.0725555 0.256357 0.253164 0.304308 0.918316
0.363923 -0.119466 -0.349959 0.248 -0.961456 0.118738
0.265886 0.114791 0.514645 -0.338735 0.93625 -0.0932396
-0.199301 0.140581 -0.769372 0.414316 0.73305 0.539425
0.104437 0.17407 -0.180243 -0.0196359 0.947041 -0.320511
-0.268526 -0.139857 -0.170761 -0.359341 -0.931224 0.0607869
-0.0311949 -0.0521406 -0.991743 -0.0692023 -0.0339186 -0.997026
0.0344876 0.0735567 0.703098 -0.0822094 0.220413 -0.971936
0.195537 0.102915 -0.376035 -0.671278 0.642501 -0.369565
0.146071 0.0971682 0.672728 -0.414265 0.518177 -0.748249
0.134646 0.0534268 0.284364 -0.54954 0.12982 0.82532
0.416464 -0.0952556 -0.653914 0.841816 -0.51848 -0.15008
-0.0477374 -0.130745 0.863943 -0.0287319 -0.98656 0.160856
0.0430035 0.077586 -0.979441 0.190797 0.412022 -0.890974
-0.387822 -0.0621551 -0.783864 -0.63789 -0.66158 -0.394218
-0.330777 0.144706 -0.42502 -0.00574314 0.999522 0.0303789
-0.122056 -0.186133 -0.098431 -0.249053 -0.968415 0.0120124
0.271698 0.124094 -0.566452 -0.796109 0.604199 0.0339753
-0.0553473 -0.111879 -0.950236 -0.0144274 -0.824802 -0.565237
0.317893 0.00938538 0.814631 0.671946 -0.284103 0.68394
-0.0546452 -0.182459 -0.158304 0.0205509 -0.953378 -0.301079
-0.282952 -0.082521 0.819955 -0.639027 -0.421947 0.643122
-0.239083 -0.137447 0.773223 -0.405768 -0.804875 0.433045
-0.0409132 0.0784397 -0.76712 0.0113254 0.273542 0.961793
0.246068 0.146767 -0.338099 0.15653 0.987269 0.0282536
-0.376495 0.0366911 -0.811571 -0.797144 0.299501 -0.524271
0.403711 0.10859 -0.649106 0.680441 0.727124 -0.0910497
-0.288012 -0.0171793 0.843896 -0.663634 -0.0477974 0.746529
-0.359532 -0.0288477 0.0958157 -0.938684 0.231233 -0.25574
0.208704 0.0496908 0.387009 -0.719114 0.599816 0.35085
0.0337932 -0.00724938 -0.31591 0.0157327 0.0592789 -0.998117
-0.341139 -0.140774 -0.682122 -0.481914 -0.856796 -0.183468
0.0730178 0.0408573 -0.322551 -0.384221 0.0171916 -0.923081
0.397687 -0.00106318 0.225725 0.907451 -0.264833 -0.326185
-0.273848 -0.113938 0.46975 0.819875 -0.571063 0.0411256
-0.407561 0.00246305 0.230588 -0.907347 0.28042 -0.313186
-0.0756996 0.171432 0.122274 0.0600545 0.92434 0.376813
-0.134749 -0.111202 -0.934351 -0.185119 -0.596398 -0.78105
0.335198 0.134437 -0.725932 0.62255 0.732019 -0.27673
0.00955923 -0.0889771 -0.773207 0.0606031 -0.591728 0.803856
0.390477 -0.0862803 -0.342278 0.847163 -0.409097 0.339049
0.234547 -0.154618 0.118053 0.522643 -0.837554 -0.159207
-0.125763 -0.0781906 -0.322534 0.551308 -0.540579 -0.635479
-0.207675 -0.16424 -0.1233 -0.245035 -0.969511 0.00264306
-0.258633 0.147284 0.691196 0.219474 0.957623 -0.186521
0.395614 0.106005 0.335577 0.748128 0.600002 -0.283378
-0.416184 -0.10115 -0.661798 -0.832985 -0.531215 -0.154746
0.296529 0.146977 0.281419 -0.290961 0.941169 0.171881
0.45882 0.010743 0.48878 0.955607 0.291022 -0.046063
0.239734 -0.134116 0.777828 0.429736 -0.786607 0.44337
0.19091 -0.141371 0.715335 -0.316963 -0.877464 -0.359988
0.310305 0.141492 -0.549589 0.132197 0.991065 0.0177049
0.278231 0.136065 0.354686 -0.290961 0.941169 0.171881
0.26191 -0.126005 0.381048 -0.623871 -0.703573 0.34025
0.128987 0.133596 0.731877 -0.118676 0.976209 -0.18147
0.300021 0.137141 0.522719 -0.0619783 0.998062 0.00553211
0.205482 0.140827 -0.75435 -0.421598 0.838494 0.345229
0.0284558 0.0960262 0.904681 0.0839961 0.763168 0.640717
-0.445897 0.00453062 0.343326 -0.953989 -0.18773 -0.233801
-0.382553 0.137004 0.541588 -0.74985 0.657216 0.0761041
0.415934 0.0750834 -0.406472 0.93901 0.204729 0.276307
-0.0162315 0.144447 0.823893 0.0124834 0.982566 -0.185492
0.216339 0.0676289 -0.606266 -0.602828 0.74736 0.279376
-0.0700388 -0.0948215 0.713697 0.131747 -0.456588 -0.879869
0.248204 -0.134221 -0.107058 0.683581 -0.717438 0.134161
0.0568802 -0.0216641 -0.741632 -0.215905 0.139579 0.966386
-0.0743264 -0.0655851 0.245064 0.424296 -0.412096 0.806319
-0.448308 -0.03422 0.358747 -0.862241 -0.461752 -0.208149
-0.205746 -0.153959 0.155428 0.0364888 -0.991387 0.12578
0.203576 0.146879 0.766783 0.0861563 0.977539 0.19234
0.413524 -0.0358555 0.288194 0.824261 -0.487449 -0.288075
-0.302141 0.141662 -0.29162 0.00275343 0.993967 -0.109647
0.0847803 0.193212 -0.0355425 0.224113 0.97456 0.00258482
0.185616 0.0279857 0.353068 -0.839334 -0.0319306 0.542677
0.188564 0.115419 0.276786 -0.396842 0.701942 0.591435
0.222221 0.0539445 -0.520667 -0.776016 0.618026 -0.125868
0.0134224 0.199052 -0.0311063 0.0260784 0.995828 -0.0874402
0.195758 -0.0104085 -0.445754 -0.801561 -0.0164834 -0.597685
0.328177 0.134772 -0.336377 0.15653 0.987269 0.0282536
-0.373198 -0.135944 0.58001 0.0373692 -0.999019 0.0237472
-0.0155264 -0.144706 -0.892892 -0.0144274 -0.824802 -0.565237
-0.217808 -0.0646703 0.566646 0.829892 -0.232092 -0.507358
-0.300187 -0.109325 -0.83802 -0.608186 -0.510139 -0.608168
0.136644 0.129696 -0.28876 -0.385116 0.763613 -0.518247
-0.439857 -0.0806826 -0.626981 -0.538757 -0.834412 -0.116176
0.202541 -0.163895 0.0628686 0.241378 -0.970332 0.0138915
-0.452475 0.0373621 -0.661673 -0.893585 0.273226 -0.356164
-0.289959 0.129201 -0.588118 0.38436 0.9078 0.167831
-0.39216 0.123345 0.383043 -0.823986 0.524122 -0.215274
-0.101567 0.184647 0.0662258 -0.180631 0.982755 0.0395658
-0.173648 -0.0585861 -0.374266 0.749596 -0.454385 -0.48129
-0.379494 -0.124452 0.634816 -0.38896 -0.915212 0.105345
0.397776 -0.0409132 0.247755 0.824261 -0.487449 -0.288075
0.113688 0.163426 0.139386 0.0161084 0.939524 0.342105
-0.0262654 0.0391063 0.246802 0.0423276 0.0359069 0.998458
-0.426284 0.103682 0.456587 -0.895104 0.433967 -0.102283
-0.00719789 0.102694 0.724298 0.140811 0.714553 -0.685264
0.133338 0.141976 -0.804693 0.100827 0.982376 -0.157388
0.00264661 -0.128721 -0.249516 0.0510328 -0.837553 -0.543968
0.0740268 0.0804665 0.696386 -0.414265 0.518177 -0.748249
-0.380523 0.00171721 0.151946 -0.938595 -0.0852991 -0.33431
0.160669 -0.0425345 0.626122 -0.769916 -0.386348 -0.507902
-0.452341 -0.0395147 -0.648672 -0.980423 -0.0243222 -0.195396
-0.247799 -0.0833542 -0.573261 0.559808 -0.826641 0.0572718
0.0560723 0.0439417 0.686723 -0.194241 0.0132829 -0.980864
-0.220773 -0.0818547 -0.923683 -0.491123 -0.293689 -0.820088
0.207226 -0.051892 0.563783 -0.750528 -0.579642 -0.317369
0.229586 -0.066634 -0.510884 -0.886042 -0.452556 0.100612
0.109031 -0.0164539 -0.346542 -0.384221 0.0171916 -0.923081
-0.277397 0.148174 0.29556 0.224551 0.949455 0.219346
0.168806 0.00489868 -0.402143 -0.675942 -0.211928 -0.705825
0.422546 -0.101245 0.474283 0.798134 -0.598117 0.0723765
0.181664 -0.0419008 -0.660193 -0.899493 0.0143297 0.4367
-0.380309 -0.113659 0.292802 -0.774533 -0.547266 -0.317173
0.421934 0.0850561 -0.45455 0.839436 0.532276 0.10968
-0.21224 -0.0310007 0.390253 0.905096 -0.383969 0.18267
-0.325227 0.0681659 -0.101309 -0.77483 0.630117 0.0508912
-0.116072 -0.0652161 0.262861 0.320798 -0.163738 0.932887
0.149956 0.173309 0.0748758 0.0989124 0.969379 0.224768
0.168332 -0.174391 0.0363097 0.178242 -0.983106 0.0416304
0.24452 -0.154803 0.194019 0.193606 -0.980385 0.0369138
-0.00518859 0.00957475 -0.312343 -0.0119902 -0.243733 -0.969768
-0.00112823 0.13264 -0.929632 0.0499664 0.712061 -0.700337
0.00623111 -0.175681 0.113819 -0.0635551 -0.836492 0.544281
-0.264978 0.106668 -0.489858 0.827244 0.56149 -0.0198912
0.201174 -0.113301 -0.898037 0.249461 -0.737411 -0.62769
-0.269545 0.133772 0.60201 0.674567 0.710182 -0.201496
0.0227833 0.17373 0.116023 0.0023842 0.932988 0.359901
-0.229595 -0.04738 0.464977 0.982095 -0.101393 0.158771
-0.0910456 0.000958745 0.669163 0.42605 0.286878 -0.858011
-0.151601 -0.110148 -0.311889 0.41736 -0.766351 -0.488382
-0.00342111 -0.124465 0.875303 0.00342697 -0.963524 0.267599
-0.140666 0.153784 0.178075 0.17085 0.817107 0.550587
0.362534 0.110318 -0.339111 0.619539 0.747152 0.240698
0.388877 0.0984006 -0.377379 0.883432 0.360844 0.298897
-0.149487 0.18021 -0.0829655 -0.154512 0.981298 -0.114808
-0.267006 -0.127008 -0.0892556 -0.72917 -0.671639 0.131197
0.0443476 -0.183364 0.0908599 -0.0196677 -0.980803 0.194005
0.229018 -0.139597 0.670223 -0.0697298 -0.996816 -0.0386657
0.177436 -0.105475 -0.339458 -0.638067 -0.575823 -0.511174
-0.100137 -0.0369101 -0.733441 0.345471 -0.551175 0.75951
-0.404869 -0.110849 0.606099 -0.536635 -0.819221 0.20224
0.0251927 0.191802 -0.108471 0.00819674 0.963896 -0.266152
-0.380756 -0.0571653 0.732432 -0.779031 -0.12939 0.613489
-0.0163344 0.106096 -0.270496 0.109822 0.738424 -0.665334
0.376577 0.0735577 -0.779354 0.715343 0.353112 -0.60299
-0.207935 0.0186239 -0.953713 -0.362445 0.281978 -0.888326
-0.152344 -0.0133288 0.914767 -0.195045 -0.223157 0.95507
-0.00374741 0.119926 0.885172 0.0839961 0.763168 0.640717
-0.0897803 -0.188593 -0.130415 -0.137807 -0.9855 -0.0989949
0.220416 -0.147089 -0.80157 -0.0237689 -0.997697 0.0635351
0.17772 -0.169002 -0.0421861 0.495607 -0.86756 -0.0414
0.014211 0.137147 0.179796 0.0135752 0.875946 0.482217
0.288837 -0.0914098 -0.00151161 0.660706 -0.749 -0.0496743
0.119944 -0.0583559 0.909904 0.196674 -0.601517 0.774271
-0.454352 -0.0436081 0.401411 -0.950895 -0.298098 -0.0832851
-0.0573304 -0.0183078 -0.316935 0.381962 0.118135 -0.916597
0.396278 -0.115783 -0.412804 0.682518 -0.717217 0.140603
-0.14945 -0.0831075 0.891704 -0.244996 -0.322237 0.914407
-0.0757045 -0.0591192 -0.309534 0.304198 -0.577357 -0.757709
0.258639 -0.00838173 0.859525 0.547196 0.2121 0.809685
0.340397 -0.139336 0.367322 0.112382 -0.993641 0.00685304
0.244728 -0.133608 0.628329 -0.306494 -0.92663 -0.217759
0.426299 -0.00188477 0.310618 0.923725 0.180344 -0.337946
0.106518 0.111274 0.227119 -0.396842 0.701942 0.591435
-0.283068 0.142674 0.33816 0.0814025 0.991074 0.105578
-0.212681 -0.0185584 0.548877 0.86625 0.209328 -0.453644
-0.108361 0.130791 -0.80176 0.150563 0.740369 0.655122
0.265592 0.136114 0.601431 -0.0519808 0.998398 -0.0223295
0.277903 0.127632 -0.520881 -0.570599 0.807349 -0.150346
0.238135 -0.145141 -0.760166 -0.078732 -0.995401 0.0545742
-0.428254 0.0753543 0.366765 -0.706551 0.677766 -0.203517
0.168776 0.146771 0.790499 0.0986854 0.970009 0.222135
0.450355 -0.0482259 0.552412 0.945473 -0.23824 0.222087
-0.254242 -0.134613 -0.0506137 -0.712956 -0.701171 0.00728358
-0.222195 0.0964059 -0.912275 -0.49353 0.489544 -0.718871
0.333622 0.14586 -0.459147 -0.249545 0.963057 -0.101232
0.033227 0.14122 -0.838409 0.0135185 0.777508 0.628727
-0.117435 0.11568 0.872972 -0.105337 0.791885 0.601516
0.338432 0.145334 0.421973 -0.323859 0.944124 0.0612003
0.437061 0.0223492 0.640328 0.886145 -0.0712311 0.457901
-0.274678 0.0360404 -0.911265 -0.523726 -0.00288345 -0.851882
0.0117025 0.171818 -0.180657 -0.0196359 0.947041 -0.320511
-0.296805 -0.145048 -0.372073 0.0805655 -0.986061 -0.145576
-0.0904853 -0.133528 0.852571 -0.0380995 -0.871946 0.488117
0.410609 0.120438 0.462733 0.859965 0.510351 0.0012845
0.182562 0.115539 -0.723148 -0.466799 0.612084 0.63832
-0.223936 -0.0482055 -0.598126 0.812267 -0.568623 0.129961
0.433717 -0.0873029 0.534072 0.919225 -0.393013 -0.0238099
0.345542 0.00210276 0.785914 0.669722 0.293511 0.682147
-0.1256 -0.166342 0.115543 -0.120035 -0.979113 0.164103
0.119372 -0.0769068 0.266264 -0.604655 -0.378909 0.700585
-0.144637 -0.0999355 0.253001 0.306879 -0.643468 0.701266
-0.315649 0.14427 0.416284 0.622575 0.77371 0.117362
0.116576 0.0185588 0.654151 -0.713383 0.0994707 -0.693679
-0.312722 0.123955 0.74535 -0.530607 0.641205 0.554358
0.346583 -0.0497496 0.103731 0.763731 -0.602068 -0.232871
0.43286 -0.0302675 0.636807 0.945473 -0.23824 0.222087
-0.306362 -0.14451 0.62627 0.256472 -0.961243 -0.10116
-0.105992 0.160481 0.152478 0.17085 0.817107 0.550587
-0.417669 0.105333 0.411784 -0.617956 0.773508 -0.14077
0.099262 0.146541 0.785385 0.0986854 0.970009 0.222135
-0.405628 0.082435 0.67027 -0.64548 0.719159 0.257228
-0.347271 -0.140976 -0.459729 -0.16589 -0.985685 0.0300967
0.440373 -0.0550579 0.41301 0.976065 -0.154563 -0.152998
0.110398 0.175459 0.101311 0.144673 0.979645 0.139159
-0.0355233 -0.0317757 0.248719 -0.140294 -0.384 0.912612
0.282025 0.112165 0.0505039 0.473347 0.877399 -0.0781866
-0.237362 0.0678153 -0.482789 0.709175 0.696526 -0.109189
0.370743 -0.0137473 -0.814603 0.765423 -0.375217 -0.52282
-0.00558191 0.0850221 -0.977566 -0.097462 0.451991 -0.886682
-0.198259 0.035315 0.363942 0.760595 0.494919 0.420179
0.177363 -0.130148 0.24949 -0.482625 -0.769232 0.418755
-0.0734533 -0.0254117 -0.993251 -0.0692023 -0.0339186 -0.997026
0.330404 0.0178654 -0.0680205 0.945822 0.201476 0.254613
-0.0651996 -0.166971 -0.196322 0.0640723 -0.917317 -0.392968
-0.415607 -0.104595 -0.458147 -0.724934 -0.65 0.227971
0.256608 0.145106 0.26757 0.0376719 0.998197 0.0467375
0.308354 0.0694624 -0.863149 0.685695 0.168367 -0.708149
-0.268448 -0.112675 0.51454 0.77566 -0.596748 -0.205533
0.1043 0.0946151 -0.754937 -0.493729 0.389696 0.777411
0.191477 0.130635 0.819655 0.0861563 0.977539 0.19234
0.0159066 0.043896 -0.994526 0.0156466 -0.0761659 -0.996972
0.19823 -0.053237 -0.943576 0.45326 -0.493936 -0.742013
-0.345911 0.0583865 0.78029 -0.781991 0.190295 0.59353
-0.440208 0.0388354 -0.390083 -0.809177 0.521595 0.270503
0.205455 -0.158461 0.201165 0.177213 -0.983611 0.033231
-0.374976 0.136449 -0.648925 0.0920936 0.995393 0.0266828
0.263551 0.140874 0.307857 -0.0447859 0.995926 0.0782658
-0.0075611 -0.187144 -0.142873 0.0347264 -0.90628 -0.421249
0.193993 0.139535 0.706571 -0.243759 0.945465 -0.216051
0.348876 -0.0356573 0.773594 0.805117 -0.0310819 0.592301
-0.256921 0.112135 0.553577 0.653865 0.668272 -0.354786
-0.358631 0.0724089 -0.227791 -0.723361 0.610616 0.322331
-0.353161 0.0868818 0.168881 -0.822441 0.489076 -0.29051
-0.14027 -0.0370898 0.289313 0.676586 -0.453382 0.580238
-0.0176163 -0.171489 -0.183311 0.00545631 -0.948797 -0.315839
0.337018 0.145075 0.503029 0.0364391 0.999267 -0.0117076
-0.111704 0.109672 0.235346 0.17085 0.817107 0.550587
0.198365 -0.1659 0.106938 0.193606 -0.980385 0.0369138
-0.020186 -0.144912 0.800175 0.011196 -0.999709 0.0213837
-0.268203 -0.105995 -0.539916 0.812267 -0.568623 0.129961
0.214421 -0.161885 0.155767 -0.0205685 -0.980325 0.196314
-0.013757 -0.141044 0.839915 0.011196 -0.999709 0.0213837
-0.241679 0.144572 0.269218 0.418896 0.806149 0.417911
0.345346 0.0816124 -0.220966 0.88021 0.374701 0.291256
-0.447025 -0.0776652 -0.580202 -0.79911 -0.600803 0.0214336
0.169234 -0.146636 0.213637 -0.0569014 -0.963495 0.261609
0.0289433 0.0622623 0.925956 0.0552796 0.148574 0.987355
0.194505 -0.0912836 0.863173 0.245157 -0.701632 0.669037
-0.265915 0.140903 0.0966994 -0.670717 0.728894 -0.137305
0.45009 0.0451148 0.558841 0.963433 0.265114 0.0388747
-0.278384 0.143508 0.155126 -0.468502 0.874756 -0.123728
-0.415439 0.0381235 0.270938 -0.938881 0.0294889 -0.342977
0.0120968 -0.154482 -0.213281 -0.0023211 -0.74773 -0.663999
-0.466304 -0.0160664 0.47937 -0.937557 -0.347811 -0.00385908
0.439977 0.000836381 -0.417062 0.93901 0.204729 0.276307
-0.342053 -0.0272977 0.793029 -0.779031 -0.12939 0.613489
0.199026 -0.0733533 0.347425 -0.867975 -0.266254 0.419199
0.35015 -0.00826617 0.0836928 0.932241 0.244154 -0.267048
0.226257 0.129008 0.293025 -0.536575 0.790456 0.295408
0.38907 0.0964428 0.29406 0.613596 0.741182 -0.272302
-0.402546 0.103118 0.345463 -0.617956 0.773508 -0.14077
-0.370345 -0.11523 0.677781 -0.72524 -0.604884 0.328852
0.411213 0.0966273 0.618281 0.574304 0.7661 0.288558
-0.302264 -0.135345 0.495513 0.651561 -0.758483 -0.0131087
0.134445 0.0971284 -0.323717 -0.320913 0.648675 -0.690098
-0.457193 -0.0590726 0.485783 -0.950895 -0.298098 -0.0832851
-0.0642527 -0.0773583 -0.9776 -0.0667915 -0.306882 -0.949401
0.061667 0.173528 -0.177828 -0.0853198 0.903924 -0.419098
0.269535 -0.147083 0.663201 -0.426731 -0.859378 -0.281728
-0.205959 0.0440193 0.890127 -0.418035 0.506713 0.753982
0.375561 0.135883 0.564469 0.176921 0.983755 0.0304256
-0.356417 -0.0987488 0.728525 -0.438125 -0.809808 0.390201
-0.361821 -0.0224789 -0.164044 -0.872988 -0.396233 0.284413
0.190881 -0.0124635 0.574425 -0.761867 -0.144449 -0.631422
-0.348532 0.0643134 -0.183418 -0.711706 0.667628 0.21851
0.221853 -0.152238 -0.217195 -0.0907743 -0.953956 -0.285881
0.387125 0.0141003 -0.260119 0.948738 0.0904714 0.302838
-0.31192 -0.138159 0.449177 0.255486 -0.965096 0.0575915
-0.235594 0.108658 0.593418 0.404102 0.894325 -0.192054
-0.231433 0.0512709 0.487959 0.853361 0.442828 -0.275095
0.0642959 -0.0790753 0.698871 -0.303419 -0.209083 -0.929635
0.127566 -0.0486231 0.656881 -0.663933 -0.317966 -0.676824
0.169775 0.144581 0.741927 -0.0683064 0.988541 -0.134614
-0.331743 0.0973712 0.132238 -0.583594 0.785009 -0.207794
0.299204 -0.0891403 0.0388774 0.668555 -0.734886 -0.113911
-0.271627 0.145196 -0.777325 0.157306 0.974929 0.157379
-0.06054 0.189958 -0.114438 -0.0858988 0.979723 -0.18101
0.079942 -0.118818 -0.269408 -0.302528 -0.685544 -0.662198
0.317728 -0.0903969 -0.163888 0.849267 -0.450573 0.275192
-0.385007 -0.08484 0.70153 -0.591745 -0.732858 0.335793
0.352829 -0.0598486 0.141682 0.833479 -0.4673 -0.294861
0.0768859 0.184026 -0.139045 0.00819674 0.963896 -0.266152
-0.389415 0.0284461 0.190796 -0.874178 0.36727 -0.317689
0.111282 0.133013 0.850076 0.234592 0.824268 0.515314
0.308559 0.0795779 0.0341042 0.863063 0.498787 -0.0795856
-0.401147 0.128496 -0.588032 -0.434285 0.900762 -0.00489261
-0.102877 -0.0541567 -0.97999 -0.282561 -0.409254 -0.867566
0.149853 -0.0254409 -0.375415 -0.608985 -0.491325 -0.622685
0.30967 -0.121829 0.737025 0.580816 -0.576854 0.574362
0.0160251 0.0352305 0.246993 -0.152663 0.423214 0.893076
0.346652 -0.0518628 -0.828969 0.635404 -0.330691 -0.697786
0.284224 -0.131648 0.419595 -0.223792 -0.97459 -0.00954224
0.442845 -0.0657531 0.453951 0.980983 -0.177169 -0.0792731
-0.191063 -0.10975 -0.912774 -0.338716 -0.747825 -0.570989
-0.412087 0.0133525 -0.766738 -0.854839 0.29853 -0.424418
0.324063 -0.0353116 -0.00652466 0.958934 -0.179401 -0.219686
-0.146503 0.179024 0.0719488 -0.0413495 0.972247 0.230274
-0.344268 -0.00461466 -0.0808756 -0.901066 -0.40041 0.166589
0.280415 -0.147443 0.30071 -0.418621 -0.858034 0.297545
-0.217372 0.158991 -0.111646 -0.518298 0.850656 0.0880371
0.196932 -0.144748 0.770355 0.276098 -0.899927 0.337493
-0.308879 -0.142745 -0.440482 0.338948 -0.928178 -0.153624
-0.241106 0.13174 0.312687 0.418896 0.806149 0.417911
0.238337 -0.0350387 -0.927466 0.418353 -0.329566 -0.846385
-0.108014 -0.151651 0.160449 0.0233395 -0.861082 0.507931
0.0269291 -0.198982 -0.0718925 0.000623304 -0.9915 -0.130108
0.349013 -0.0185545 -0.144169 0.849267 -0.450573 0.275192
-0.371966 -0.124806 -0.392375 -0.724934 -0.65 0.227971
0.0627489 -0.144101 -0.894578 -0.000316204 -0.999979 0.00645194
-0.460606 -0.0391272 -0.484215 -0.942115 -0.232347 0.241731
-0.10841 0.189618 -0.0493095 -0.142708 0.985491 -0.0918762
0.136249 0.180851 0.0284007 0.144673 0.979645 0.139159
-0.398159 -0.046909 0.224289 -0.774533 -0.547266 -0.317173
-0.107484 0.162111 -0.208494 0.0454657 0.869461 -0.491904
0.243154 0.147047 -0.135953 0.530905 0.842382 0.0923735
0.291 0.145615 -0.718174 0.383775 0.896247 -0.222393
-0.30277 -0.1337 -0.527769 0.336929 -0.937826 -0.0834371
-0.366158 -0.0980874 -0.773767 -0.419263 -0.873543 -0.247267
0.366549 -0.112163 0.286934 0.699925 -0.660295 -0.272242
-0.0514559 -0.136155 -0.914059 -0.0148298 -0.976658 -0.214287
-0.101799 -0.0258157 0.926005 -0.244996 -0.322237 0.914407
0.162785 0.0896282 -0.941151 0.219729 0.62493 -0.74912
-0.20838 -0.165464 -0.217934 -0.197765 -0.979475 -0.0389483
-0.195045 0.0461403 -0.400163 0.913391 -0.0275144 -0.406153
-0.271392 -0.134045 0.331565 0.524108 -0.837149 0.156497
0.157347 0.17682 -0.00784056 0.398764 0.916692 0.0257587
-0.244094 -0.0821267 0.491514 0.77566 -0.596748 -0.205533
-0.353701 -0.144509 0.424584 0.255486 -0.965096 0.0575915
-0.346026 0.0478593 -0.140985 -0.971786 0.0800551 0.221861
-0.203989 -0.160715 -0.00783474 -0.431795 -0.901578 0.0266305
-0.436071 0.0518905 -0.699182 -0.946465 -0.0643175 -0.316333
-0.414546 -0.120593 0.472913 -0.592277 -0.804305 0.0479746
-0.461255 -0.0530205 -0.537687 -0.79911 -0.600803 0.0214336
0.207029 0.119662 0.642148 -0.424454 0.783991 -0.452987
0.306738 0.0715076 -0.010955 0.953079 0.300182 -0.0391377
-0.140631 0.112863 -0.301182 0.526646 0.528301 -0.66599
0.377641 0.138361 0.523586 0.660087 0.740819 0.124387
0.360282 0.107877 -0.755494 0.47864 0.800672 -0.360317
0.0962767 -0.169977 -0.179643 0.116661 -0.971597 -0.205887
-0.321093 0.143269 0.501008 0.629835 0.775158 -0.0493788
-0.217418 0.0403387 -0.448297 0.913391 -0.0275144 -0.406153
-0.234457 0.080449 0.856488 -0.498143 0.48844 0.716435
-0.0080962 -0.198395 -0.0983853 -0.0305914 -0.999421 0.0148929
0.345083 -0.144684 -0.475025 0.319205 -0.942961 0.094508
0.00769463 -0.0591901 0.924313 -0.027361 -0.258337 0.965667
-0.0578567 -0.141913 0.786865 0.0957707 -0.826665 -0.554484
0.3075 -0.139222 -0.49374 0.0751358 -0.996916 0.0226591
0.297767 -0.11916 -0.816488 0.515178 -0.572576 -0.637768
-0.1261 0.110039 -0.767527 0.264986 0.568089 0.779139
0.0541941 0.130933 0.750308 -0.205356 0.73673 -0.64425
-0.359776 0.0935167 -0.264748 -0.706965 0.652192 0.273581
-0.108085 -0.0816411 0.903344 -0.273559 -0.513698 0.813191
0.0294269 -0.0611965 0.700156 -0.275128 -0.468086 -0.839762
-0.258879 0.150678 -0.28889 -0.318191 0.940793 0.116884
-0.276835 0.121256 0.50254 0.38989 0.915841 -0.0960245
-0.127978 0.0439514 0.282186 0.385469 0.135193 0.912763
-0.395739 0.12583 -0.428754 -0.64969 0.717185 0.25209
0.451156 -0.0381396 -0.617092 0.994777 0.0030081 -0.102031
-0.371291 0.0326171 -0.214695 -0.93755 0.00615704 0.347796
0.292864 0.0896953 0.800637 0.441379 0.642681 0.626215
0.16106 0.157681 0.155571 -0.138797 0.937962 0.317746
-0.0928005 0.0105546 -0.73035 0.488206 0.251855 0.835598
-0.228262 0.00617865 0.883917 -0.417588 -0.250615 0.873392
0.043259 0.135194 -0.919718 0.0499664 0.712061 -0.700337
-0.0646771 0.137794 0.761048 0.127023 0.879123 -0.459355
0.090646 -0.144353 0.790325 -0.123781 -0.964762 -0.232191
-0.340947 -0.145886 0.477701 -0.0673285 -0.997495 -0.0216705
0.322325 0.0342195 -0.0220193 0.999302 -0.0322268 -0.0188984
0.117087 -0.0933881 0.89072 0.125495 -0.690749 0.712121
0.363468 -0.143809 -0.516707 0.0751358 -0.996916 0.0226591
0.0695178 0.0497287 0.925859 0.110672 0.0561038 0.992272
-0.0326885 -0.151059 -0.221466 0.0184588 -0.866829 -0.498264
0.0785057 -0.109836 0.884399 0.142998 -0.502181 0.852857
-0.342334 -0.142777 -0.50721 0.114317 -0.993444 3.62696e-005
0.030265 0.145833 0.81932 0.0565125 0.911409 0.407604
0.355828 -0.145306 -0.561377 -0.214658 -0.975058 0.0564274
-0.198658 0.0737655 -0.940203 -0.420086 0.109829 -0.900814
-0.0649354 -0.124129 0.747004 0.187513 -0.780579 -0.596267
0.378701 -0.120119 -0.687023 0.772799 -0.550706 -0.315442
0.355384 -0.104464 0.236296 0.495302 -0.854037 -0.159048
0.181852 0.170505 -0.0882058 0.221968 0.97468 -0.0270029
0.225408 0.149561 0.103796 0.427994 0.895408 -0.122746
-0.163888 0.0894874 0.659958 0.638008 0.559617 -0.528937
-0.0435576 -0.126618 -0.254077 0.203095 -0.728756 -0.653962
0.234222 -0.0822801 0.525874 -0.890202 -0.454755 -0.027168
0.326878 -0.0462924 -0.0996449 0.812561 -0.565787 0.140109
0.294497 -0.126485 -0.214619 0.571928 -0.795535 0.200058
0.431479 0.0425354 0.335277 0.923725 0.180344 -0.337946
0.286448 0.10197 0.00928462 0.643698 0.765231 0.0086134
-0.203876 0.126743 -0.884423 -0.103079 0.97647 -0.189424
-0.315646 0.0790146 0.0214356 -0.927688 0.332527 -0.169768
-0.209526 0.10347 -0.686198 0.582804 0.49909 0.641287
0.377672 -0.122682 0.362078 0.335593 -0.940214 -0.0580982
0.204568 0.156608 0.0667599 0.473347 0.877399 -0.0781866
0.304614 0.146941 0.605852 0.176921 0.983755 0.0304256
0.128249 0.178831 -0.147575 0.237164 0.970633 -0.0403021
-0.159014 0.0127446 0.625246 0.533287 0.0840426 -0.841749
0.193664 0.162347 0.00620221 0.514678 0.857346 0.00805311
0.213968 0.103085 0.842097 0.471425 0.489577 0.733535
-0.222158 0.139581 -0.845202 -0.0635771 0.995348 -0.0723918
0.257724 -0.14109 -0.199309 0.571928 -0.795535 0.200058
-0.399768 0.051603 0.711425 -0.716078 0.460884 0.52423
0.124631 -0.184908 0.0189737 0.147844 -0.986476 0.0707632
-0.0014458 -0.0832347 0.713573 -0.148203 -0.370629 -0.91688
0.450322 0.0463151 -0.601035 0.855642 0.490629 -0.164801
-0.0664698 -0.0478452 0.925791 -0.0349005 -0.452114 0.891277
0.312293 -0.141434 -0.731849 -0.0344954 -0.999361 0.00938013
-0.376797 0.116398 -0.723288 -0.618688 0.748563 -0.238491
0.0186113 0.196547 0.00828337 0.0585029 0.987914 0.14354
-0.230684 -0.0565545 0.419272 0.982095 -0.101393 0.158771
0.219712 -0.0412667 0.449166 -0.88562 -0.39953 0.236756
0.165135 -0.170262 0.13103 -0.0569014 -0.963495 0.261609
0.247386 -0.10103 -0.589563 -0.556549 -0.827767 0.0710932
-0.321584 -0.113645 -0.217388 -0.47365 -0.862299 0.179154
0.17157 0.17307 -0.0481994 0.440445 0.896511 0.0476993
-0.00373867 0.0490839 -0.303545 -0.202177 0.253302 -0.946025
-0.178335 -0.0236986 -0.964916 -0.432916 -0.129344 -0.892106
-0.248443 -0.08649 0.446696 0.606512 -0.789701 0.0922768
0.13596 0.146453 0.768723 0.0861563 0.977539 0.19234
0.190703 -0.0176494 0.896307 0.475504 0.0459584 0.878512
-0.25764 0.110135 -0.613984 0.491897 0.861912 0.123062
0.10193 -0.147339 -0.853809 0.167223 -0.903795 -0.393943
-0.105773 0.0449361 0.668865 0.572109 0.359733 -0.737078
0.446616 0.0593431 -0.53429 0.977828 0.209323 -0.00606085
-0.177275 0.144624 -0.853503 0.032165 0.998333 0.0479274
-0.148587 0.0512554 0.646006 0.533287 0.0840426 -0.841749
0.419752 -0.0513491 -0.714342 0.772799 -0.550706 -0.315442
0.0269389 -0.121436 0.197474 -0.20998 -0.614304 0.760618
0.339527 0.143071 0.543956 -0.338735 0.93625 -0.0932396
0.0379944 -0.114564 0.885543 0.019719 -0.603587 0.797054
-0.422626 -0.0031628 0.271174 -0.938241 0.0302998 -0.344653
0.270428 -0.124379 -0.459652 -0.494927 -0.833606 -0.245251
0.0934497 0.188743 0.0299846 0.0590193 0.975094 0.213797
0.224289 0.0556906 0.428456 -0.953875 0.299997 -0.0111329
-0.344636 -0.137746 0.653119 -0.129074 -0.986813 0.0976686
0.186766 -0.121727 -0.730482 -0.293166 -0.832578 0.469965
-0.19867 -0.139753 0.789679 -0.188912 -0.943257 0.27309
-0.0948341 -0.143727 0.813979 0.0696053 -0.949459 -0.306076
-0.0317009 0.17251 0.119078 -0.0129033 0.969271 0.245658
0.439705 0.0108411 0.357483 0.942604 0.263801 -0.204709
0.355281 -0.14453 -0.608162 -0.100138 -0.994548 0.0291108
-0.245704 0.119598 0.354098 0.716896 0.637539 0.282144
0.333654 0.0898069 0.147775 0.692893 0.683739 -0.228912
-0.023686 0.194735 -0.0959099 0.0324426 0.984763 -0.170851
-0.0759977 0.119658 0.877275 -0.0614066 0.906339 0.418065
0.375426 0.140735 0.482603 -0.0619783 0.998062 0.00553211
0.262356 0.124613 0.55962 -0.621866 0.770263 -0.141344
0.407681 -0.0926791 0.35626 0.716154 -0.655589 -0.239429
0.208504 0.16165 -0.118971 0.219317 0.974647 -0.044306
0.153155 -0.178205 -0.00901371 0.217205 -0.975175 -0.043079
-0.102372 0.109391 0.711174 0.287769 0.507487 -0.812186
-0.234223 0.075634 -0.604744 0.906889 0.390511 0.158283
0.264244 0.120198 -0.0182988 0.789313 0.613858 0.0127907
0.227794 -0.0646266 -0.562149 -0.963968 -0.170151 0.204486
-0.427312 0.0760128 0.631949 -0.92147 0.289127 0.25942
0.325403 -0.141109 -0.364251 0.428596 -0.879936 0.204984
-0.0348163 -0.0610081 -0.298881 0.0126784 -0.589943 -0.807345
-0.285731 0.110525 -0.0102568 -0.548156 0.833434 -0.0700893
-0.00986272 -0.135871 0.178248 0.0852973 -0.736427 0.671118
-0.206253 -0.0262285 -0.439993 0.917415 -0.301327 -0.259906
0.0711881 0.183362 0.0777358 0.0585029 0.987914 0.14354
0.22851 0.157141 -0.223657 0.0900365 0.993513 -0.0694584
-0.12451 0.173587 -0.171061 -0.154512 0.981298 -0.114808
-0.200645 0.140925 0.242248 0.0410715 0.983031 0.178785
-0.338956 -0.110672 -0.256768 -0.754603 -0.594211 0.278365
0.191716 -0.0569041 0.884516 0.40469 -0.156582 0.900948
-0.191727 0.14711 -0.812771 0.219401 0.93865 0.26608
0.137425 0.132319 0.212268 -0.155204 0.810725 0.564479
0.165141 -0.0825617 -0.944323 0.327654 -0.738236 -0.589619
0.270527 -0.137705 0.123982 0.520952 -0.841838 -0.141128
-0.183652 0.109773 -0.918229 -0.218292 0.738524 -0.637911
0.212019 -0.112902 -0.36694 -0.285195 -0.939102 -0.191706
-0.333366 -0.145919 0.523859 0.0373692 -0.999019 0.0237472
0.412299 0.109634 -0.599978 0.855642 0.490629 -0.164801
0.131774 -0.145317 0.198398 -0.257437 -0.874158 0.411794
0.143923 -0.167112 -0.181414 0.17036 -0.975518 -0.139076
0.00769851 -0.00809233 -0.748625 -0.160573 -0.330281 0.930124
-0.182429 -0.0663252 0.315693 0.520378 -0.557544 0.646801
-0.197128 -0.105529 0.288493 0.676586 -0.453382 0.580238
0.113654 -0.12107 0.862601 0.151363 -0.884517 0.441269
0.155863 0.126679 0.703136 -0.118676 0.976209 -0.18147
0.197016 0.0609872 0.580697 -0.856617 0.418799 -0.301354
0.0878481 -0.0884741 0.242815 -0.20998 -0.614304 0.760618
-0.384014 -0.13398 -0.518903 -0.0385482 -0.998812 0.0298046
-0.466843 0.0309963 -0.549801 -0.974627 0.206691 0.085914
-0.31275 -0.095813 -0.141739 -0.620603 -0.765716 0.168911
0.366511 -0.138655 0.472524 0.504129 -0.860851 -0.0692066
0.409659 0.115705 0.548562 0.857564 0.506891 0.0874396
-0.428183 -0.0444044 -0.718553 -0.880031 -0.376723 -0.289179
-0.345603 -0.143354 0.371746 0.255486 -0.965096 0.0575915
-0.423553 0.0821087 -0.394955 -0.88085 0.329253 0.34014
-0.115093 0.0974295 -0.954261 -0.238157 0.318197 -0.917623
0.430148 -0.0580024 -0.411825 0.954676 -0.0731331 0.288524
-0.0054508 -0.0313697 -0.308905 -0.20398 -0.0749737 -0.9761
0.221579 0.0155861 0.885156 0.547196 0.2121 0.809685
-0.199854 0.140348 0.796866 -0.254164 0.806513 0.533795
-0.430865 -0.0621473 0.327766 -0.953989 -0.18773 -0.233801
0.369258 0.134812 -0.636318 0.687564 0.700696 -0.190475
-0.340182 0.00872985 -0.0371731 -0.911086 0.408515 0.0551219
0.186133 0.16888 -0.156537 0.219317 0.974647 -0.044306
0.226124 -0.134817 -0.718513 -0.37861 -0.898106 0.223741
-0.246477 -0.130434 -0.375154 0.038053 -0.996724 -0.071362
0.420663 0.0504221 -0.712106 0.876569 0.417082 -0.240145
-0.459672 0.0407534 -0.618463 -0.925765 0.371768 -0.0689011
-0.0211076 -0.197001 -0.00835721 -0.0305914 -0.999421 0.0148929
-0.136116 -0.145381 -0.859832 0.00959733 -0.998217 0.0589204
0.0130816 0.14216 -0.234957 -0.135451 0.792519 -0.594614
0.357448 0.108463 0.699914 0.545364 0.719013 0.430811
-0.0301703 -0.0701767 0.232117 0.0932973 -0.24344 0.965418
-0.225451 -0.12361 0.815668 -0.132075 -0.967918 0.213755
-0.381492 -0.125011 -0.679109 -0.721179 -0.663779 -0.198239
0.329372 0.110377 0.735344 0.380732 0.886991 0.261325
-0.0611528 0.159007 -0.210996 -0.0143015 0.955649 -0.29416
0.222237 -0.095611 -0.412971 -0.791373 -0.55865 -0.248273
0.158186 0.126144 0.841291 0.242875 0.690566 0.681271
0.42006 0.0641599 0.645601 0.754939 0.597771 0.269698
-0.210815 0.074591 0.590251 0.853361 0.442828 -0.275095
0.181171 0.0291123 -0.961443 0.420365 -0.117 -0.89978
-0.305978 -0.0454329 0.82122 -0.535402 -0.514255 0.669989
0.177572 0.0777579 0.309918 -0.757706 0.450682 0.471982
-0.311635 -0.100496 0.0772464 -0.477813 -0.871065 -0.113753
